NCOLS 200
NROWS 28
XLLCORNER 2415750
YLLCORNER 2553000
CELLSIZE 250
NODATA_VALUE -9999
118.249877929688 118.249877929688 118.269409179688 118.062515258789 117.568695068359 117.093048095703 117.093048095703 117.364440917969 118.119941711426 118.260246276855 118.269088745117 117.893630981445 117.589324951172 117.589324951172 117.734886169434 117.589324951172 117.589324951172 117.589324951172 117.589324951172 118.050308227539 117.79248046875 117.49430847168 117.251770019531 116.92854309082 116.716735839844 116.799095153809 117.058456420898 117.13990020752 116.857360839844 116.134094238281 115.805786132812 116.582015991211 117.179161071777 116.456192016602 115.439590454102 115.389213562012 116.064834594727 116.827835083008 116.775749206543 115.395614624023 115.172073364258 115.172073364258 115.172073364258 115.699577331543 115.940185546875 115.139373779297 114.144584655762 113.146224975586 112.876243591309 112.876243591309 112.876243591309 112.876243591309 112.876243591309 113.467910766602 113.673217773438 113.476493835449 112.853370666504 111.837142944336 111.837142944336 112.415306091309 112.653106689453 112.657356262207 112.567321777344 112.360595703125 112.138160705566 111.521049499512 110.917358398438 110.917358398438 110.917358398438 110.957374572754 110.894538879395 110.408531188965 110.047393798828 110 110.194091796875 109.999977111816 109.803192138672 109.599853515625 109.2333984375 108.830474853516 108.756118774414 108.756118774414 108.756118774414 108.756118774414 108.756118774414 108.756118774414 109.008270263672 109.207305908203 109.006210327148 108.756118774414 108.756118774414 108.756118774414 108.994926452637 109.968933105469 110.703887939453 114.150276184082 116.922241210938 119.802993774414 121.111640930176 127.414268493652 129.98046875 130 130.444107055664 132.695098876953 131.355224609375 130 129.873397827148 129.898712158203 129.666107177734 130.27912902832 128.215057373047 125.798500061035 125.212738037109 125.246307373047 124.993957519531 124.309448242188 123.587532043457 123.306747436523 123.331893920898 123.271514892578 123.006500244141 122.360260009766 121.857833862305 121.389617919922 120.996002197266 120.664108276367 120.455749511719 119.941055297852 119.704971313477 119.699035644531 119.85205078125 119.496627807617 119.49201965332 119.730987548828 119.975105285645 120 120.014419555664 120 120 120 120 120 120 120.80770111084 121.858619689941 122.845069885254 122.445083618164 121.449813842773 120.577224731445 119.806343078613 121.361587524414 121.043884277344 120.824691772461 120.870483398438 121.334625244141 122.530136108398 123.986305236816 125.648063659668 127.044052124023 127.992126464844 126.399658203125 126.780685424805 127.729789733887 127.40161895752 126.643379211426 125.820251464844 125.633842468262 125.705612182617 127.041549682617 128.402008056641 129.422958374023 130.204528808594 130.313385009766 130.225860595703 131.893249511719 133.063400268555 132.531097412109 130.667205810547 129.062927246094 127.624801635742 126.554260253906 126.338668823242 126.400672912598 126.71662902832 127.181686401367 127.241058349609 126.565086364746 125.492706298828 125.136795043945 124.977615356445 124.784591674805 124.571655273438 124.534851074219 125.181823730469 126.028930664062 126.76123046875 127.136993408203 127.162628173828 127.002136230469 126.803588867188
118.249877929688 118.249877929688 118.449462890625 118.235168457031 117.634994506836 117.13362121582 117.093048095703 117.093048095703 117.943656921387 118.560317993164 118.347290039062 117.965560913086 117.589324951172 117.589324951172 117.589324951172 117.589324951172 117.589324951172 117.589324951172 117.589324951172 117.957992553711 118.221984863281 118.122268676758 117.685455322266 117.082595825195 116.698974609375 116.692489624023 116.84342956543 116.905990600586 116.683242797852 116.371109008789 116.421813964844 116.890594482422 117.197860717773 116.917137145996 116.441024780273 116.334129333496 116.683349609375 117.195915222168 117.218879699707 116.423324584961 115.419616699219 115.172073364258 115.172073364258 115.172073364258 115.172073364258 115.172073364258 114.970153808594 114.860260009766 114.079391479492 113.744049072266 113.929664611816 113.540977478027 113.243957519531 113.265808105469 113.350067138672 113.791290283203 114.410995483398 113.942245483398 113.186080932617 113.030960083008 112.869819641113 112.815803527832 112.873992919922 112.735366821289 112.473587036133 111.654586791992 110.917358398438 110.917358398438 110.917358398438 110.993293762207 110.84595489502 110.42024230957 110.061721801758 110.000137329102 109.996871948242 109.966934204102 109.821960449219 109.480484008789 109.081314086914 108.756118774414 108.756118774414 108.756118774414 108.756118774414 108.756118774414 108.756118774414 108.954284667969 109.235946655273 109.473678588867 109.340469360352 109.03636932373 108.82942199707 108.953689575195 109.243743896484 109.693168640137 111.665512084961 115.498893737793 118.446502685547 119.809143066406 123.233352661133 127.915115356445 129.724090576172 129.735748291016 133.562042236328 136.244110107422 133.203598022461 131.01318359375 129.868682861328 130 130.102630615234 129.997467041016 129.14225769043 127.423736572266 126.502304077148 125.848159790039 125.524810791016 125.31330871582 125.052825927734 124.62907409668 124.167297363281 123.563552856445 122.998237609863 122.53394317627 122.201812744141 121.818008422852 121.446281433105 121.025871276855 120.702674865723 120.384002685547 120.024505615234 119.954315185547 119.9609375 119.342002868652 120.039611816406 120.289001464844 120.893119812012 122.516021728516 122.79069519043 123.183654785156 123.389793395996 120.278106689453 120.000625610352 120.205474853516 120.020950317383 120.808258056641 121.899353027344 123.669403076172 123.318420410156 121.927406311035 121.143821716309 120.078117370605 119.777145385742 120.384994506836 120.528282165527 120.537902832031 120.846054077148 121.643798828125 122.632965087891 123.599891662598 124.694007873535 126.017608642578 126.073867797852 126.452239990234 126.904205322266 126.872451782227 126.319290161133 125.633842468262 125.633842468262 125.633842468262 127.043045043945 128.441253662109 129.56608581543 131.202758789062 130.602844238281 130.075042724609 131.114105224609 131.797561645508 131.046203613281 129.868530273438 129.081039428711 127.927848815918 127.589752197266 127.618469238281 127.908546447754 128.460205078125 128.606994628906 128.27668762207 127.551803588867 126.380676269531 126.202461242676 126.028137207031 125.742805480957 125.43196105957 125.211730957031 126.03547668457 127.040557861328 127.671890258789 127.740814208984 127.399429321289 127.036117553711 126.610542297363
119.431335449219 119.265716552734 119.23388671875 118.722938537598 117.865188598633 117.583633422852 117.483612060547 117.321960449219 117.817443847656 118.397789001465 118.350555419922 117.932556152344 117.589324951172 117.589324951172 117.589324951172 117.718605041504 117.589324951172 117.589324951172 117.589324951172 117.940567016602 118.612991333008 118.72932434082 118.014602661133 117.062866210938 116.692489624023 116.692489624023 116.692489624023 116.684410095215 116.420608520508 116.346343994141 116.467407226562 117.036346435547 117.316177368164 117.26847076416 117.084365844727 116.992637634277 117.145553588867 117.433128356934 117.59748840332 117.437469482422 116.798736572266 115.172073364258 115.172073364258 115.172073364258 115.172073364258 115.364852905273 115.309448242188 114.913467407227 114.181640625 113.910919189453 114.643814086914 113.98291015625 113.269943237305 113.241249084473 113.241249084473 113.639526367188 114.749465942383 114.797218322754 114.189147949219 113.838653564453 113.602485656738 113.507469177246 113.444450378418 113.137405395508 112.66716003418 111.968017578125 111.350738525391 111.35432434082 111.338859558105 111.027099609375 110.55721282959 109.986450195312 110.283546447754 110.177581787109 109.976181030273 109.95378112793 109.961097717285 109.570465087891 109.182556152344 108.919731140137 108.756118774414 108.756118774414 108.756118774414 108.873260498047 109.288223266602 109.656440734863 109.577590942383 109.69270324707 109.591323852539 109.380493164062 109.309478759766 109.474700927734 109.707084655762 109.912658691406 112.240875244141 116.45832824707 120.140075683594 122.502410888672 126.752700805664 129.537017822266 130 135.830184936523 139.976333618164 141.799926757812 136.789581298828 133.245681762695 132.970275878906 131.126510620117 129.92805480957 129.293426513672 128.339813232422 128.051513671875 127.313743591309 126.500099182129 126.296951293945 126.538597106934 126.580856323242 125.969764709473 125.063018798828 123.844589233398 123.015785217285 122.779220581055 122.727600097656 122.511901855469 122.109725952148 121.571189880371 121.07487487793 120.552886962891 120.38264465332 120.294982910156 120.192047119141 120.267242431641 120.57487487793 120.585334777832 122.281814575195 126.038040161133 126.810104370117 127.981735229492 128.157165527344 124.259033203125 122.333221435547 121.898963928223 120.878082275391 120.155975341797 120.712677001953 122.299530029297 122.612236022949 121.852447509766 121.199966430664 120.612503051758 119.831848144531 120.567718505859 120.791175842285 120.524139404297 120.615753173828 121.241432189941 121.892807006836 122.473617553711 123.35115814209 124.837265014648 125.512481689453 126.10612487793 126.536437988281 126.59831237793 126.139579772949 125.633842468262 125.633842468262 125.635894775391 127.144912719727 128.757751464844 129.828567504883 129.825225830078 130.076995849609 130.168029785156 130.453094482422 130.401977539062 129.763153076172 129.763153076172 129.40348815918 128.735900878906 129.077896118164 128.877700805664 128.897079467773 129.27946472168 129.354766845703 129.149871826172 128.778854370117 128.395736694336 128.01708984375 127.513916015625 127.109840393066 126.723693847656 126.677017211914 127.318252563477 128.082015991211 128.361114501953 127.95401763916 127.216705322266 126.846092224121 126.688247680664
120.051330566406 119.918426513672 119.580383300781 119.032318115234 118.517837524414 118.631561279297 118.664077758789 118.724571228027 118.37174987793 118.61824798584 118.498901367188 118.067489624023 117.589324951172 117.589324951172 117.589324951172 118.109771728516 118.006980895996 117.589324951172 117.589324951172 117.976531982422 118.624099731445 118.77564239502 118.046325683594 116.940124511719 116.692489624023 116.692489624023 116.692489624023 116.895614624023 116.594421386719 116.346343994141 116.420059204102 117.0849609375 117.420013427734 117.458114624023 117.296821594238 117.179077148438 117.305892944336 117.57243347168 117.825721740723 117.971336364746 117.706665039062 116.015258789062 115.172073364258 115.172073364258 116.04271697998 115.955474853516 115.306228637695 114.169967651367 113.241249084473 113.241249084473 113.241249084473 113.241249084473 113.241249084473 113.902709960938 114.490158081055 114.113090515137 114.501792907715 114.477516174316 114.249908447266 114.260734558105 114.500823974609 114.498207092285 114.039756774902 113.450729370117 112.90869140625 112.288459777832 111.935531616211 111.859130859375 111.768531799316 111.207954406738 110.499465942383 110.658187866211 110.935356140137 110.853591918945 110.634521484375 110.076057434082 109.968338012695 109.809677124023 109.599967956543 109.392547607422 109.192840576172 108.929901123047 108.872367858887 109.250427246094 109.803817749023 110.048065185547 110.011672973633 109.916854858398 109.79753112793 109.679977416992 109.815544128418 110.037994384766 110.000709533691 110.545860290527 113.683715820312 117.463836669922 120.332092285156 125.423637390137 129.649047851562 129.992340087891 129.993148803711 134.901885986328 139.999633789062 141.782012939453 138.812652587891 135.946105957031 135.272979736328 133.524383544922 131.404632568359 129.071960449219 127.76286315918 127.799346923828 127.57356262207 126.953903198242 127.04541015625 127.784706115723 128.095581054688 127.375770568848 126.292778015137 124.899993896484 123.613090515137 123.559448242188 123.671325683594 123.451416015625 122.853729248047 122.018966674805 121.337989807129 120.825469970703 120.572738647461 120.606910705566 120.87239074707 121.006591796875 121.353271484375 122.938934326172 124.644569396973 127.207977294922 129.803283691406 130.223526000977 130.000030517578 127.271392822266 124.480895996094 122.748611450195 121.420448303223 120.624588012695 120.778961181641 121.660369873047 122.001319885254 121.797103881836 121.416259765625 121.652160644531 119.992614746094 121.522438049316 123.713584899902 120.767700195312 121.160919189453 121.696823120117 122.254302978516 122.849029541016 123.537467956543 124.511283874512 125.366767883301 126.124588012695 126.587860107422 126.698150634766 126.433853149414 125.841247558594 125.633842468262 125.92333984375 127.260116577148 128.842864990234 129.904846191406 129.825225830078 129.844268798828 129.844268798828 129.844268798828 129.922485351562 129.763153076172 129.763153076172 129.93603515625 130.026092529297 129.552825927734 129.051681518555 128.980224609375 129.208145141602 129.35774230957 129.343841552734 129.108612060547 128.891662597656 128.971221923828 128.598022460938 128.29248046875 127.854110717773 127.644004821777 128.351455688477 128.866607666016 128.752990722656 127.671890258789 126.77473449707 126.77473449707 126.873664855957
119.9970703125 119.98860168457 119.872192382812 119.500274658203 119.475402832031 119.671516418457 119.906433105469 119.423095703125 118.46802520752 118.670486450195 118.812408447266 118.69490814209 117.886154174805 117.589324951172 117.589324951172 118.077133178711 118.351043701172 118.087997436523 117.842864990234 117.863525390625 118.157569885254 118.398193359375 118.047973632812 117.176727294922 116.692489624023 116.692489624023 117.204727172852 117.690582275391 117.437759399414 116.668197631836 116.586631774902 117.07292175293 117.550155639648 117.644836425781 117.363082885742 117.186676025391 117.310775756836 117.634979248047 117.846267700195 117.849609375 117.435668945312 116.585655212402 116.083435058594 116.678535461426 117.123977661133 116.417221069336 115.570892333984 113.241249084473 113.241249084473 113.241249084473 113.241249084473 113.241249084473 113.241249084473 114.559677124023 115.229766845703 114.724533081055 114.263122558594 113.952301025391 113.801078796387 113.988922119141 114.527442932129 114.714477539062 114.051734924316 113.300575256348 112.901824951172 112.192161560059 112.127502441406 112.258567810059 112.226165771484 111.97875213623 111.889862060547 111.638854980469 111.716186523438 111.57413482666 111.24934387207 110.971832275391 110.723617553711 110.379058837891 110.000106811523 109.799774169922 109.632537841797 109.432411193848 109.265426635742 109.244262695312 110.061080932617 110.060577392578 110.323013305664 110.62532043457 110.165222167969 110.115020751953 110.423934936523 110.868881225586 111.064071655273 113.019027709961 116.233177185059 119.9833984375 124.191696166992 130.002380371094 130.012481689453 130 131.474166870117 140.213638305664 140.109008789062 140.023391723633 138.912750244141 139.069931030273 138.828765869141 135.82975769043 133.623474121094 130.459991455078 129.704010009766 128.989105224609 128.2841796875 127.805847167969 127.956115722656 128.740447998047 129.233215332031 129.515625 128.709945678711 127.060409545898 125.288818359375 125.226806640625 125.211822509766 124.689270019531 123.658401489258 122.4775390625 121.699081420898 121.230125427246 120.997528076172 121.446197509766 121.99486541748 121.904991149902 122.983581542969 125.971893310547 127.840133666992 129.409118652344 130 130.135665893555 129.839080810547 127.707023620605 126.364318847656 123.689071655273 122.54296875 122.202125549316 122.256439208984 122.484786987305 122.478950500488 122.246231079102 121.991081237793 122.009483337402 121.25830078125 120.126007080078 122.25594329834 122.739471435547 122.482574462891 122.808074951172 123.287734985352 123.665649414062 123.969360351562 124.721206665039 125.700500488281 126.486824035645 126.895706176758 127.063812255859 126.92822265625 126.361206054688 125.799835205078 126.039886474609 127.427825927734 128.592437744141 131.443328857422 129.990631103516 130.000061035156 129.844268798828 129.844268798828 129.970840454102 129.763153076172 129.763153076172 130.000381469727 129.770446777344 129.056549072266 128.980224609375 128.980224609375 128.980224609375 129.115982055664 129.122619628906 128.891662597656 128.891662597656 128.891662597656 129.576522827148 129.308959960938 128.954788208008 128.698318481445 129.086929321289 129.622665405273 129.05224609375 126.866104125977 126.77473449707 126.77473449707 126.77473449707
120 119.999893188477 120.004455566406 120.007873535156 120.012893676758 120.078819274902 119.905601501465 118.523170471191 118.617485046387 118.606658935547 118.848236083984 118.999984741211 118.557067871094 118.115951538086 118.143264770508 118.51725769043 118.653549194336 118.420181274414 118.043060302734 117.815628051758 117.815628051758 118.259269714355 118.42643737793 117.933944702148 117.575347900391 117.652008056641 117.930328369141 118.138946533203 117.741821289062 116.82080078125 116.574531555176 116.936546325684 117.68856048584 117.867492675781 117.395431518555 117.186676025391 117.371841430664 117.756713867188 117.779159545898 117.464447021484 116.778038024902 116.380004882812 116.441604614258 116.640724182129 116.517990112305 116.248962402344 116.322860717773 114.075042724609 114.549758911133 113.686218261719 114.339279174805 114.328170776367 114.309051513672 114.768409729004 114.85863494873 114.357284545898 113.729850769043 113.49299621582 113.181968688965 113.365394592285 113.729194641113 113.966339111328 113.533470153809 112.755302429199 111.811080932617 112.362266540527 112.432395935059 112.527320861816 112.608840942383 112.695182800293 112.696708679199 112.564727783203 112.594207763672 112.516250610352 112.026901245117 111.483116149902 110.962409973145 110.517944335938 110.258209228516 109.950714111328 109.812973022461 109.76732635498 109.695281982422 109.119972229004 110.041496276855 110.286987304688 110.622970581055 110.956436157227 110.731819152832 110.609962463379 110.881973266602 111.089309692383 111.628974914551 114.725257873535 117.621696472168 120.156616210938 124.133476257324 128.095886230469 129.854461669922 130.034393310547 136.82275390625 142.282241821289 141.131439208984 140.061492919922 139.810852050781 139.61653137207 139.621978759766 138.536773681641 134.960357666016 129.946731567383 129.877716064453 129.263366699219 128.845245361328 128.554473876953 128.610214233398 129.089569091797 129.715393066406 133.110107421875 131.972229003906 127.75764465332 126.548385620117 127.340362548828 126.663009643555 125.742919921875 124.224182128906 122.925659179688 122.201614379883 121.837478637695 121.856307983398 122.330505371094 122.87996673584 123.020446777344 123.819007873535 126.415893554688 128.324340820312 130.010833740234 130 131.590789794922 130.014785766602 129.101806640625 127.773223876953 125.922271728516 124.595001220703 124.37907409668 124.358551025391 124.11336517334 123.636444091797 123.030715942383 122.531509399414 122.083427429199 121.456069946289 120.767272949219 121.355934143066 122.565795898438 122.969779968262 123.780731201172 124.395011901855 124.446632385254 124.387084960938 124.862495422363 126.349647521973 126.964302062988 127.117477416992 127.373687744141 127.504211425781 126.947204589844 126.193267822266 125.889694213867 126.913391113281 127.931304931641 130.035247802734 129.704925537109 130 130.633575439453 130.16877746582 129.907623291016 129.943634033203 129.763153076172 129.968246459961 129.875305175781 129.707641601562 128.980224609375 128.980224609375 128.980224609375 128.978393554688 128.891662597656 128.891662597656 128.891662597656 128.891662597656 129.712280273438 129.983917236328 129.870635986328 129.250640869141 129.128326416016 130.085784912109 128.910125732422 126.77473449707 126.77473449707 126.77473449707 126.77473449707
120.410354614258 120.189712524414 120.088806152344 120.114967346191 120.040000915527 120.000640869141 120.020332336426 119.924217224121 118.606658935547 118.606658935547 118.606658935547 118.624160766602 118.678764343262 118.855087280273 118.914428710938 118.961334228516 118.933670043945 118.687225341797 118.31364440918 117.815628051758 117.815628051758 118.848495483398 119.24983215332 118.888488769531 118.699607849121 118.689559936523 118.505851745605 118.17414855957 117.535049438477 116.617027282715 116.574531555176 116.673324584961 117.554985046387 117.855422973633 117.505996704102 117.278671264648 117.827682495117 117.980598449707 117.742492675781 117.357040405273 116.661911010742 116.380004882812 116.518432617188 116.501319885254 115.961357116699 115.165000915527 116.041793823242 115.17951965332 114.792045593262 114.95100402832 115.871307373047 115.26587677002 114.671279907227 114.949325561523 114.430397033691 113.874031066895 113.047004699707 113.904075622559 113.431846618652 112.957664489746 112.978256225586 113.683242797852 113.232429504395 111.977012634277 112.583358764648 112.695198059082 112.819816589355 112.855316162109 112.866622924805 113.039108276367 113.173233032227 113.134773254395 113.139007568359 113.080200195312 112.643951416016 112.007232666016 111.284706115723 110.538650512695 110.173782348633 110.010429382324 109.986068725586 109.976531982422 110.005065917969 110.078430175781 110.236221313477 110.483215332031 110.772506713867 111.115112304688 111.103363037109 110.977554321289 111.320709228516 111.817916870117 112.478851318359 114.319839477539 118.117752075195 119.713973999023 121.296661376953 125.586547851562 128.96435546875 130.023345947266 132.387420654297 142.498901367188 142.12532043457 139.947418212891 139.938995361328 139.607864379883 138.875610351562 136.807037353516 133.278594970703 130.233978271484 129.971496582031 129.401229858398 129.176361083984 129.040893554688 129.052780151367 129.501068115234 129.746612548828 130.837768554688 129.729476928711 129.445831298828 128.176391601562 129.189025878906 128.623260498047 126.388519287109 124.433959960938 123.465049743652 122.974044799805 122.747680664062 122.829711914062 123.221015930176 123.641204833984 123.701713562012 124.173645019531 125.500144958496 127.972389221191 129.925567626953 132.361312866211 136.265594482422 133.036926269531 130.191528320312 129.990097045898 128.564270019531 127.301048278809 127.082321166992 126.831504821777 125.982833862305 124.985610961914 123.929252624512 123.089752197266 122.407669067383 121.957382202148 121.463409423828 120.722991943359 121.453224182129 122.831405639648 124.353324890137 125.207305908203 125.166320800781 125.141983032227 126.022903442383 127.382827758789 127.266906738281 127.021408081055 127.452880859375 127.996513366699 127.45085144043 126.789680480957 126.623863220215 127.420860290527 128.676361083984 129.372039794922 129.177978515625 129.764495849609 129.907623291016 129.907623291016 129.907623291016 130.362060546875 130.030670166016 129.875305175781 129.875305175781 129.875305175781 129.744430541992 129.083953857422 129.142395019531 129.042846679688 128.891662597656 128.891662597656 128.891662597656 129.205108642578 130.042327880859 130.017120361328 130.882232666016 129.781555175781 129.383026123047 130.176605224609 130.081756591797 127.793243408203 127.302551269531 127.153923034668 126.905906677246
120.790428161621 120.678466796875 120.572906494141 120.486000061035 120.442375183105 120.247650146484 120.092926025391 118.671424865723 118.606658935547 118.606658935547 118.606658935547 118.606658935547 118.606658935547 118.838180541992 118.981964111328 119.023109436035 119.024612426758 118.911796569824 118.816825866699 118.47981262207 117.815628051758 118.892501831055 119.569229125977 119.360870361328 119.194839477539 119.033493041992 118.696716308594 118.183868408203 117.52326965332 116.761505126953 116.574531555176 116.777076721191 117.331283569336 117.61279296875 117.579765319824 117.636672973633 117.889190673828 117.857864379883 117.60710144043 117.438018798828 117.271392822266 117.015594482422 117.015327453613 116.672370910645 116.308517456055 115.725769042969 115.307487487793 115.274963378906 114.892608642578 114.955490112305 115.128280639648 114.594749450684 114.11376953125 114.726989746094 113.871437072754 113.650032043457 114.587455749512 115.940933227539 114.620002746582 113.556045532227 112.924301147461 112.600288391113 112.472618103027 112.732025146484 112.949401855469 113.138290405273 113.176948547363 113.038917541504 112.927635192871 113.10221862793 113.286811828613 113.215103149414 113.128524780273 113.130149841309 113.052551269531 112.62272644043 111.735733032227 110.589126586914 110.151351928711 110.01229095459 109.973068237305 109.973068237305 110.43034362793 111.225112915039 110.818023681641 110.695922851562 110.997741699219 111.477233886719 111.640151977539 111.643478393555 112.118804931641 113.148986816406 114.354537963867 116.033905029297 118.266647338867 119.843185424805 122.281021118164 126.052131652832 129.230758666992 129.841156005859 137.824890136719 139.700881958008 140 139.947418212891 139.947418212891 139.405914306641 137.747955322266 135.08366394043 131.766784667969 130.213714599609 130.189331054688 129.69873046875 129.288284301758 129.252258300781 129.230651855469 129.759002685547 129.743225097656 130 129.87841796875 129.808715820312 130 129.979858398438 128.676803588867 126.141235351562 124.793403625488 124.484176635742 124.165649414062 123.904418945312 123.914123535156 124.183547973633 124.433006286621 124.492332458496 124.808700561523 125.476028442383 128.087646484375 130.012756347656 131.965072631836 132.688201904297 131.46240234375 129.899978637695 129.887222290039 129.907104492188 129.221160888672 129.0654296875 128.392761230469 127.185302734375 125.922241210938 124.630058288574 123.611099243164 122.902313232422 122.741226196289 122.099609375 121.272247314453 121.651458740234 123.13614654541 124.51530456543 125.134429931641 125.325424194336 125.569549560547 126.384353637695 127.08065032959 127.096778869629 126.943511962891 127.209587097168 127.559646606445 127.442901611328 127.187316894531 127.303024291992 127.987533569336 129.093292236328 129.391983032227 129.7294921875 130.000015258789 129.964019775391 129.907623291016 129.907623291016 129.948608398438 129.974090576172 129.875305175781 129.875305175781 129.875305175781 130.098083496094 129.95280456543 129.715942382812 128.918365478516 128.891662597656 128.891662597656 128.891662597656 129.004959106445 129.464019775391 129.926300048828 130.000015258789 130 129.929229736328 130.053070068359 130.133712768555 129.319381713867 128.90673828125 128.504623413086 127.675323486328
121.029006958008 120.919525146484 120.901908874512 120.965972900391 120.857810974121 120.41633605957 120.11109161377 118.777465820312 118.606658935547 118.606658935547 118.606658935547 118.606658935547 118.606658935547 118.606658935547 118.606658935547 118.817337036133 118.892105102539 118.970642089844 119.186279296875 119.309631347656 119.091659545898 119.309349060059 119.514694213867 119.381645202637 119.127738952637 118.82341003418 118.566207885742 118.264953613281 117.814323425293 117.259399414062 117.010620117188 117.083618164062 117.219696044922 117.343841552734 117.486907958984 117.721710205078 117.851905822754 117.606140136719 117.411209106445 117.411209106445 117.507316589355 117.636009216309 116.963981628418 117.894119262695 116.622512817383 115.595886230469 115.277381896973 114.659004211426 115.304779052734 115.283042907715 114.954750061035 114.325592041016 114.120422363281 114.113250732422 113.819480895996 114.19059753418 114.413909912109 114.825355529785 114.607666015625 113.87809753418 113.233596801758 112.758544921875 112.772102355957 113.179809570312 113.65071105957 113.848503112793 113.667083740234 113.260444641113 112.938034057617 113.18138885498 113.468589782715 113.355506896973 113.128524780273 113.273483276367 113.62353515625 113.69197845459 112.522552490234 110.670669555664 110.225021362305 109.973068237305 109.973068237305 110.496551513672 111.547714233398 112.59407043457 112.011993408203 111.488662719727 111.676193237305 112.360687255859 112.947494506836 113.159492492676 113.626388549805 114.939544677734 116.485626220703 117.837188720703 119.504608154297 121.077682495117 124.800270080566 128.844482421875 130.647827148438 139.296508789062 141.42529296875 140.009811401367 141.534271240234 143.212738037109 141.351959228516 139.046371459961 137.387100219727 134.560028076172 132.098999023438 130.820571899414 130.566833496094 130.1015625 129.250259399414 129.250259399414 129.675933837891 131.891235351562 133.351379394531 133.375579833984 132.324584960938 130.174224853516 129.972640991211 130 128.929885864258 127.590339660645 126.928955078125 126.345947265625 125.884124755859 125.43815612793 125.261810302734 125.23210144043 125.26197052002 124.940238952637 126.47802734375 127.524719238281 128.610855102539 129.999954223633 131.894470214844 131.719512939453 132.038208007812 132.512741088867 132.208709716797 129.989364624023 130.338989257812 129.921752929688 129.021636962891 127.883666992188 126.650680541992 125.350059509277 124.145149230957 123.171417236328 123.744041442871 124.301696777344 121.570304870605 122.589164733887 124.076950073242 124.858963012695 124.785270690918 124.922836303711 125.405181884766 126.077369689941 126.541809082031 126.684158325195 126.676956176758 126.79167175293 126.958023071289 127.116439819336 127.25732421875 127.583068847656 128.245178222656 129.545501708984 130.11474609375 130.224700927734 130.526458740234 130.798553466797 130.196868896484 129.988433837891 129.93505859375 129.93505859375 129.913543701172 129.875305175781 130.034729003906 130.395904541016 129.858764648438 129.110565185547 128.891662597656 128.891662597656 128.891662597656 128.891662597656 128.891662597656 128.891662597656 128.893920898438 129.179046630859 129.477386474609 129.818725585938 130.032836914062 130.007781982422 130.016418457031 129.828628540039 129.215667724609 128.855453491211
121.053215026855 121.0234375 121.079620361328 121.079483032227 120.794273376465 120.378005981445 119.811637878418 119.159111022949 118.919952392578 118.606658935547 118.606658935547 118.606658935547 118.606658935547 118.606658935547 118.606658935547 118.729110717773 118.720245361328 118.805938720703 119.239135742188 119.538024902344 119.514717102051 119.498779296875 119.539794921875 119.325088500977 118.937225341797 118.461120605469 118.39860534668 118.441009521484 118.265548706055 117.801193237305 117.451919555664 117.259567260742 117.176681518555 117.176681518555 117.330917358398 117.795684814453 117.965774536133 117.528854370117 117.411209106445 117.411209106445 117.69075012207 118.081695556641 118.176216125488 117.54842376709 115.982025146484 115.19214630127 114.88117980957 114.88117980957 114.88117980957 115.838279724121 115.719375610352 115.031806945801 114.531494140625 113.766990661621 114.518432617188 114.726638793945 114.261581420898 114.261581420898 114.289489746094 114.053565979004 113.631217956543 113.256660461426 113.307281494141 113.846717834473 114.495132446289 114.657608032227 114.316070556641 113.766426086426 113.365119934082 113.455711364746 113.802825927734 113.938629150391 113.531768798828 113.754959106445 114.18856048584 114.597305297852 113.426307678223 110.628837585449 110.865745544434 110.935325622559 111.481246948242 111.567527770996 111.926574707031 112.900283813477 112.594360351562 112.299713134766 112.541931152344 113.588035583496 114.628387451172 115.348617553711 115.745178222656 116.596160888672 118.06803894043 119.497222900391 119.899291992188 123.415893554688 127.324157714844 129.519104003906 129.870315551758 132.834487915039 139.748199462891 140.681457519531 142.207336425781 145.603790283203 143.36262512207 139.598846435547 137.390747070312 134.454803466797 132.104110717773 131.270767211914 130.704467773438 130.079254150391 129.250259399414 129.250259399414 129.896072387695 134.333984375 137.927032470703 137.999359130859 136.137023925781 132.138778686523 129.999908447266 130 130.000061035156 129.248016357422 128.689300537109 128.151580810547 127.667236328125 126.934448242188 126.526397705078 126.087219238281 126.051513671875 126.461532592773 127.961029052734 128.985534667969 129.702423095703 131.577117919922 133.324554443359 134.469360351562 134.897094726562 135.224472045898 134.326812744141 131.855529785156 129.890289306641 129.959594726562 129.471206665039 128.318786621094 127.571914672852 126.698799133301 124.970291137695 123.170791625977 123.538047790527 123.921630859375 121.485992431641 122.921829223633 124.438278198242 124.826148986816 124.288726806641 124.422996520996 125.127662658691 125.79801940918 126.17195892334 126.293518066406 126.301162719727 126.37264251709 126.467735290527 126.740791320801 127.197036743164 127.675369262695 128.55876159668 130.081390380859 130.262359619141 130.506134033203 130.752227783203 130.751800537109 130.315551757812 130.191223144531 130.297210693359 130.257080078125 130.175354003906 130.17707824707 130.048889160156 130 129.274108886719 128.891662597656 128.891662597656 128.891662597656 128.891662597656 128.891662597656 128.891662597656 128.891662597656 128.891662597656 128.891662597656 128.891662597656 129.051635742188 130.083099365234 130.208251953125 130.455932617188 130.475463867188 129.906387329102 129.820739746094
121.02465057373 121.056121826172 121.143661499023 121.050498962402 120.685470581055 120.320266723633 119.464797973633 119.328971862793 119.454437255859 119.292205810547 118.606658935547 118.606658935547 118.606658935547 118.606658935547 119.263336181641 119.121139526367 118.720245361328 118.720245361328 119.322540283203 119.751434326172 119.806571960449 119.768630981445 119.685348510742 119.483901977539 118.983551025391 118.39860534668 118.39860534668 118.754043579102 118.774124145508 118.263816833496 117.81803894043 117.423294067383 117.176681518555 117.176681518555 117.176681518555 118.015548706055 118.435394287109 117.909790039062 117.411209106445 117.430053710938 117.994445800781 118.609664916992 118.951232910156 117.801307678223 115.484069824219 115.782234191895 115.119140625 114.88117980957 114.93578338623 116.070541381836 116.43278503418 116.343132019043 115.469100952148 114.585807800293 114.884765625 114.855361938477 114.398956298828 114.261581420898 114.262031555176 114.39672088623 114.22386932373 114.026245117188 114.098350524902 114.551742553711 115.092132568359 115.203186035156 114.949920654297 114.456253051758 113.971565246582 113.775985717773 113.89542388916 114.195510864258 114.29182434082 114.332977294922 114.468353271484 114.526260375977 113.612487792969 112.15348815918 112.341674804688 112.665267944336 112.699691772461 112.435501098633 112.40291595459 112.787124633789 112.993743896484 113.039283752441 113.501525878906 115.027076721191 116.268424987793 117.839431762695 118.004196166992 118.642463684082 119.374038696289 120.466674804688 123.585624694824 127.109664916992 129.194854736328 129.918121337891 133.839233398438 137.105422973633 139.461334228516 144.624755859375 143.979400634766 140.002319335938 139.858062744141 138.637176513672 136.864944458008 134.127548217773 132.074356079102 131.813827514648 131.226837158203 131.876968383789 132.008453369141 130.985504150391 129.997421264648 134.706634521484 139.441497802734 139.502975463867 138.095428466797 133.484268188477 129.965454101562 130.373626708984 130.61181640625 131.358215332031 131.811553955078 129.898742675781 128.819213867188 128.486877441406 127.877059936523 126.843688964844 126.982261657715 128.348724365234 129.556854248047 131.2392578125 134.246612548828 135.033294677734 136.826721191406 138.278793334961 138.218948364258 137.529312133789 136.338897705078 133.797821044922 131.021026611328 129.857299804688 129.781585693359 128.863098144531 128.704315185547 128.294677734375 126.435333251953 123.620025634766 123.174224853516 122.921859741211 122.246566772461 122.781707763672 123.825386047363 124.284942626953 124.23063659668 124.561477661133 125.232437133789 125.69660949707 125.871032714844 125.858764648438 125.836318969727 125.989883422852 126.020233154297 126.381683349609 127.292724609375 128.042205810547 129.081756591797 130.140625 130.406341552734 130.796020507812 130.974029541016 130.644332885742 130.316925048828 130.640197753906 130.884307861328 130.716049194336 130.63427734375 130.581985473633 130.358932495117 129.722564697266 128.891662597656 128.891662597656 128.891662597656 128.891662597656 128.891662597656 128.891662597656 128.891662597656 128.891662597656 128.891662597656 128.891662597656 128.891662597656 128.891662597656 131.095458984375 131.152908325195 131.594848632812 131.398468017578 130.780426025391 130.121124267578
121.028434753418 121.077377319336 121.16911315918 121.059875488281 120.691284179688 120.300506591797 119.937133789062 119.299034118652 119.711227416992 119.738098144531 118.68928527832 118.662414550781 119.114242553711 119.489959716797 119.86498260498 119.577995300293 118.720245361328 119.106399536133 119.705947875977 120.021560668945 120.081817626953 120.063751220703 119.980270385742 119.739105224609 119.226577758789 118.604797363281 118.39860534668 118.677291870117 118.681015014648 118.282989501953 117.986877441406 117.610725402832 117.179298400879 117.176681518555 117.176681518555 118.242813110352 118.985702514648 118.354141235352 117.784240722656 117.783813476562 118.310218811035 118.946060180664 119.307670593262 119.59937286377 119.245422363281 118.293807983398 117.470809936523 116.588943481445 116.528366088867 116.881454467773 116.927886962891 116.513732910156 115.701461791992 114.865989685059 114.983139038086 114.816375732422 114.486633300781 114.261581420898 114.261581420898 114.94947052002 114.868148803711 114.764656066895 114.814994812012 115.068870544434 115.277954101562 115.125831604004 115.039848327637 114.752593994141 114.259460449219 113.994667053223 113.983139038086 114.47208404541 114.74885559082 114.526748657227 114.379287719727 114.183639526367 113.572463989258 113.092391967773 113.75602722168 114.575019836426 114.120407104492 113.40966796875 113.091766357422 113.371421813965 113.817840576172 114.10555267334 114.421798706055 116.413787841797 118.151527404785 119.48583984375 119.589836120605 121.385688781738 123.598655700684 124.608459472656 126.437026977539 129.828735351562 130.143920898438 132.156494140625 136.73713684082 141.438552856445 142.686462402344 150.02555847168 149.58642578125 141.781005859375 140.001586914062 137.017852783203 135.154724121094 133.825408935547 132.313369750977 132.838607788086 133.222229003906 134.272964477539 134.876159667969 134.337188720703 133.317092895508 133.60432434082 137.955169677734 139.502975463867 139.440460205078 136.152313232422 131.323760986328 131.243881225586 131.768096923828 131.808166503906 134.006042480469 131.305206298828 129.801132202148 129.610046386719 129.038177490234 127.513946533203 126.962127685547 129.741516113281 131.39501953125 133.791351318359 139.19645690918 139.138732910156 140.028549194336 139.688293457031 139.275909423828 138.519836425781 137.472534179688 135.541015625 133.215484619141 131.698638916016 130.887817382812 129.996475219727 130.232177734375 129.659118652344 126.166931152344 123.68000793457 123.584205627441 123.361358642578 122.829193115234 122.710029602051 123.439926147461 124.025756835938 124.503967285156 125.285537719727 125.735260009766 125.775573730469 125.734283447266 125.734283447266 125.734283447266 125.734283447266 125.936500549316 126.407409667969 127.437728881836 128.599212646484 129.433624267578 130.203277587891 130.453277587891 130.7978515625 130.870849609375 130.48747253418 130.325164794922 130.650573730469 130.996734619141 130.976303100586 130.981246948242 131.015975952148 130.568054199219 129.999633789062 129.222442626953 129.036972045898 129.070465087891 129.262664794922 129.023590087891 128.891662597656 128.891662597656 128.891662597656 128.891662597656 128.891662597656 128.891662597656 128.891662597656 131.740814208984 131.858322143555 132.036956787109 131.621231079102 130.918731689453 130.493789672852
121.119842529297 121.090293884277 121.135536193848 121.088111877441 120.772026062012 120.432678222656 120.222320556641 119.415687561035 120 120.060997009277 120.275001525879 120.147369384766 119.753005981445 119.871292114258 119.986228942871 119.9443359375 119.582984924316 120.000007629395 120.169998168945 120.289840698242 120.3369140625 120.303726196289 120.203002929688 120.025451660156 119.64274597168 119.246437072754 118.452926635742 118.074142456055 118.074142456055 118.074142456055 118.0859375 117.859115600586 117.384963989258 117.176681518555 117.176681518555 117.874954223633 118.503456115723 118.280197143555 117.952087402344 118.051040649414 118.643920898438 119.210029602051 119.662208557129 121.858840942383 121.951690673828 119.595932006836 118.750595092773 117.799774169922 117.545852661133 117.555130004883 117.396789550781 116.705322265625 115.703918457031 115.377265930176 115.276748657227 115.117988586426 114.818031311035 114.348281860352 114.261581420898 115.02237701416 115.365242004395 115.477249145508 115.523864746094 115.553504943848 115.429679870605 114.785911560059 114.29370880127 114.29370880127 114.299995422363 114.327217102051 114.457183837891 114.843238830566 114.849700927734 114.149765014648 114.060791015625 113.871475219727 113.484321594238 113.254257202148 113.92155456543 114.957168579102 114.978317260742 114.541641235352 114.123580932617 114.539978027344 115.248062133789 115.935539245605 116.76611328125 118.217559814453 119.881546020508 121.415725708008 122.152900695801 123.889533996582 126.795501708984 128.080810546875 129.416412353516 129.892196655273 134.737411499023 140.104217529297 140 139.980804443359 139.980804443359 140.020629882812 142.455688476562 139.83056640625 138.636444091797 135.512847900391 134.089691162109 133.304046630859 132.893661499023 133.256423950195 135.563049316406 137.199554443359 137.930023193359 138.071624755859 137.532562255859 136.548736572266 140.435119628906 140.296539306641 139.985534667969 136.608489990234 132.909957885742 134.035842895508 135.142501831055 135.120269775391 133.735275268555 133.281921386719 131.438491821289 130.002563476562 130.377563476562 130.004486083984 129.469757080078 129.391708374023 131.694458007812 136.204071044922 139.408111572266 139.812072753906 140.06494140625 139.963500976562 139.861145019531 139.308044433594 139.16130065918 138.966049194336 136.424194335938 135.290832519531 134.15690612793 133.298706054688 132.616119384766 130.573364257812 130.179962158203 126.086456298828 125.706604003906 124.952087402344 123.859718322754 122.363487243652 123.264999389648 123.80256652832 124.54695892334 125.777450561523 126.100769042969 125.91015625 125.734283447266 125.734283447266 125.734283447266 125.746116638184 126.19734954834 126.672332763672 127.332260131836 127.911743164062 129.040008544922 130.130004882812 130.404830932617 130.852661132812 130.866683959961 130.400085449219 130.325164794922 130.436706542969 130.82568359375 130.967193603516 130.92041015625 130.649566650391 130.236953735352 130.037033081055 130.129547119141 130.077117919922 129.905487060547 129.584838867188 129.127227783203 128.891662597656 128.891662597656 128.891662597656 128.891662597656 128.891662597656 128.891662597656 128.891662597656 130.317962646484 131.139221191406 131.393981933594 131.031127929688 130.591186523438 130.25700378418
121.155685424805 121.043792724609 120.995346069336 120.930000305176 120.720352172852 120.456146240234 120.274185180664 120.06566619873 119.995643615723 120.281784057617 120.58854675293 120.747314453125 120.508377075195 120.206497192383 120.254371643066 120.208000183105 120.169998168945 120.273506164551 120.348968505859 120.537826538086 120.652725219727 120.547622680664 120.341903686523 120.219314575195 120.050537109375 119.707672119141 118.25456237793 118.074142456055 118.074142456055 118.074142456055 118.339233398438 118.09797668457 117.555862426758 117.176681518555 117.176681518555 117.294769287109 117.795883178711 117.936111450195 117.863960266113 118.121246337891 118.803863525391 119.378929138184 120 119.923927307129 119.36946105957 118.713722229004 117.824699401855 117.453964233398 117.568641662598 117.701690673828 117.643440246582 116.905227661133 115.635154724121 115.515243530273 115.663307189941 115.699676513672 115.60262298584 115.418815612793 115.33056640625 115.546501159668 115.803504943848 116.003784179688 116.067840576172 115.969024658203 115.734161376953 115.058738708496 114.403297424316 114.33277130127 114.58080291748 114.844429016113 115.030158996582 115.06468963623 114.454513549805 114.010406494141 113.973327636719 113.816528320312 113.469696044922 113.254257202148 113.254257202148 114.384353637695 115.395355224609 115.652633666992 115.632278442383 115.802841186523 116.567535400391 117.898284912109 119.328712463379 120.50178527832 122.548095703125 124.403671264648 126.125305175781 127.322090148926 129.192565917969 129.808227539062 129.385681152344 129.534637451172 135.108032226562 139.919082641602 141.514358520508 140.008880615234 141.083831787109 139.999359130859 139.999359130859 139.427719116211 138.096435546875 136.086853027344 134.861358642578 135.70378112793 136.374877929688 135.700866699219 137.467727661133 138.906814575195 140.055908203125 140.141967773438 139.46321105957 138.995651245117 139.15185546875 140.51171875 140.125473022461 137.285736083984 133.906692504883 139.995269775391 139.630096435547 138.583038330078 138.090209960938 136.894836425781 135.294525146484 133.566375732422 132.32470703125 131.823974609375 130.953094482422 130.140213012695 133.367950439453 138.059341430664 139.545623779297 139.999694824219 140.954223632812 140.079162597656 140.017517089844 140.142913818359 139.91796875 139.999771118164 139.609481811523 138.213195800781 136.278442382812 135.708251953125 133.031860351562 130.720367431641 130.000061035156 128.579559326172 127.42024230957 126.212448120117 125.294883728027 123.818008422852 123.07893371582 123.470146179199 124.122184753418 124.931304931641 125.75023651123 126.096618652344 125.734283447266 125.734283447266 125.734283447266 126.261825561523 126.858139038086 127.252990722656 127.510284423828 127.674873352051 127.987457275391 130.146453857422 130.670028686523 131.175415039062 131.195861816406 130.722412109375 130.384902954102 130.532867431641 130.823211669922 130.971664428711 130.864227294922 130.321502685547 130.108489990234 130.673065185547 130.559997558594 130.311309814453 130.1220703125 129.598602294922 129.032806396484 128.891662597656 128.891662597656 128.891662597656 128.891662597656 128.891662597656 128.919311523438 129.700012207031 130.229995727539 130.622467041016 130.687133789062 130.456726074219 130.65852355957 130.858001708984
121.116027832031 120.923431396484 120.755310058594 120.57413482666 120.396347045898 120.274551391602 120.174575805664 119.102241516113 120.12939453125 120.383880615234 120.721954345703 121.03874206543 120.911193847656 120.666976928711 120.530029296875 120.505531311035 120.510772705078 120.507171630859 120.577423095703 120.796684265137 120.98551940918 120.712341308594 120.42138671875 120.225631713867 120.077239990234 120.172088623047 119.906669616699 118.541748046875 118.074142456055 118.924392700195 118.820327758789 118.180183410645 117.58332824707 117.176681518555 117.176681518555 117.176681518555 117.592437744141 117.849197387695 117.866790771484 118.113967895508 118.799468994141 119.287086486816 119.630645751953 118.196838378906 117.915649414062 117.284797668457 116.981552124023 116.981552124023 117.153144836426 117.396392822266 117.250106811523 116.281295776367 115.515243530273 115.515243530273 115.956604003906 116.267509460449 116.535926818848 116.835868835449 116.722328186035 116.382873535156 116.332252502441 116.409225463867 116.471313476562 116.439262390137 116.26545715332 115.789855957031 115.293411254883 115.10994720459 115.304466247559 115.668159484863 115.924118041992 115.860443115234 115.273277282715 114.715003967285 114.417686462402 114.267738342285 114.030548095703 113.254257202148 113.254257202148 113.878372192383 115.776100158691 116.595916748047 117.065277099609 117.453804016113 117.905487060547 119.050918579102 120.387603759766 122.859939575195 126.006675720215 127.416275024414 129.217788696289 130.371307373047 131.463562011719 133.623596191406 139.136840820312 133.672241210938 136.384613037109 143.045623779297 147.142166137695 140 140 139.999984741211 141.105758666992 141.851531982422 139.272796630859 136.75244140625 135.448379516602 137.016662597656 138.770050048828 139.724517822266 139.495391845703 139.77685546875 139.986236572266 139.999542236328 139.702453613281 139.457916259766 143.414474487305 141.997253417969 138.074279785156 137.631744384766 138.34748840332 140.425109863281 143.709869384766 139.603500366211 139.603500366211 140.44287109375 139.527282714844 137.375427246094 136.262466430664 134.017791748047 132.75634765625 135.160003662109 137.713592529297 140.624786376953 140.009658813477 141.3125 142.974273681641 140.141159057617 139.460388183594 139.460388183594 139.460388183594 139.995971679688 138.708343505859 137.015518188477 135.359954833984 133.193969726562 131.629531860352 129.998458862305 129.020599365234 127.822784423828 127.100204467773 126.47248840332 125.848266601562 124.739166259766 123.977172851562 123.768989562988 123.831474304199 124.271728515625 125.516204833984 126.562255859375 126.76887512207 126.400093078613 126.656745910645 127.461471557617 127.878517150879 128.130432128906 128.348754882812 128.457000732422 128.767227172852 130.173110961914 130.800827026367 131.651107788086 131.72265625 131.087554931641 130.731018066406 130.773666381836 130.978286743164 131.113159179688 131.220916748047 131.226196289062 131.091796875 131.034118652344 130.884368896484 130.862548828125 131.070938110352 130.701477050781 129.946441650391 129.561584472656 129.527709960938 129.352905273438 129.407684326172 129.473419189453 129.552947998047 129.999954223633 130.037963867188 130.255676269531 130.23046875 130.190856933594 131.373626708984 132.901702880859
121.006576538086 120.786819458008 120.579025268555 120.328811645508 120.111213684082 120.063034057617 120.063034057617 119.913475036621 120.181999206543 120.410011291504 120.688438415527 120.913948059082 120.948745727539 120.895729064941 120.84317779541 120.819854736328 120.754570007324 120.67041015625 120.633804321289 120.676483154297 120.712364196777 120.522308349609 120.309494018555 120.129684448242 120.092956542969 120.345840454102 120.48900604248 120.348541259766 120 119.515487670898 118.925567626953 118.079467773438 117.527328491211 117.260726928711 117.328506469727 117.697708129883 118.044471740723 118.152389526367 118.162109375 118.382431030273 118.848365783691 119.242202758789 119.357795715332 118.297554016113 117.296264648438 116.981552124023 116.981552124023 116.981552124023 116.981552124023 117.053802490234 116.766380310059 115.964057922363 115.515243530273 115.609954833984 115.964569091797 116.477272033691 117.018478393555 117.372993469238 117.263710021973 116.885192871094 116.693756103516 116.664070129395 116.766731262207 116.927391052246 116.910446166992 116.573944091797 116.16340637207 115.946334838867 116.080993652344 116.467185974121 116.75798034668 116.653549194336 116.142364501953 115.557113647461 115.034843444824 114.905654907227 114.988876342773 113.732238769531 113.254257202148 113.979797363281 115.471260070801 116.677047729492 117.890960693359 118.972282409668 119.427978515625 120.10107421875 121.996627807617 124.5556640625 128.391326904297 130.102447509766 130.980712890625 133.946060180664 135.839111328125 137.241760253906 139.823791503906 139.996444702148 139.694808959961 140.644134521484 144.046417236328 142.157501220703 139.999984741211 139.999984741211 140.674072265625 141.320922851562 139.196594238281 136.862228393555 135.879425048828 137.106399536133 140.005615234375 140.576599121094 139.748443603516 139.748443603516 139.901641845703 139.999542236328 143.008514404297 146.654479980469 140.600112915039 140.011001586914 139.3662109375 139.513061523438 140.034194946289 141.449783325195 140.448822021484 139.603500366211 139.603500366211 143.885192871094 139.770004272461 140.848022460938 138.902862548828 137.562088012695 139.122314453125 140.513275146484 139.56086730957 139.790496826172 139.790496826172 140.253295898438 141.064361572266 139.818618774414 139.460388183594 139.460388183594 139.460388183594 139.923797607422 138.730255126953 135.878845214844 133.929809570312 131.838043212891 130.023956298828 129.365844726562 128.521850585938 126.944183349609 126.99089050293 126.749526977539 126.249549865723 125.566604614258 124.860511779785 124.235427856445 123.97827911377 124.576698303223 125.788932800293 127.115562438965 127.7080078125 127.768539428711 127.894241333008 128.269653320312 128.644943237305 128.9140625 129.07991027832 129.245819091797 129.496734619141 130.409484863281 131.062744140625 131.708831787109 131.720367431641 131.157775878906 130.873687744141 130.898712158203 130.998962402344 131.123153686523 131.432342529297 131.938049316406 131.820739746094 131.346893310547 131.012329101562 130.830169677734 130.696960449219 130.309844970703 130.097595214844 131.088104248047 131.108856201172 130.636077880859 130.087860107422 129.998962402344 130.030288696289 130.020050048828 130 130.030166625977 129.865295410156 130.143676757812 131.828643798828 132.0205078125
120.662338256836 120.662483215332 120.587814331055 120.317459106445 120.063034057617 120.063034057617 119.936569213867 120.146369934082 120.111442565918 120.378616333008 120.62825012207 120.829872131348 120.978065490723 121.094970703125 121.127288818359 121.109680175781 120.987968444824 120.780876159668 120.559432983398 120.327789306641 120.194053649902 120.149047851562 120.114791870117 120.08984375 120.084106445312 120.155899047852 120.29369354248 120.161651611328 120.005722045898 119.552360534668 118.751663208008 117.873039245605 117.667465209961 117.708786010742 118.050903320312 118.591270446777 118.78271484375 118.519172668457 118.548828125 118.797256469727 119.01008605957 119.041809082031 118.852066040039 117.963958740234 117.069305419922 116.981552124023 116.981552124023 116.981552124023 116.981552124023 116.968902587891 116.614761352539 116.254013061523 116.381103515625 116.230979919434 116.051483154297 116.497863769531 117.266990661621 117.479820251465 117.369293212891 117.032745361328 116.867698669434 116.812568664551 116.921615600586 117.371887207031 117.630477905273 117.338935852051 116.912055969238 116.633605957031 116.702682495117 117.098449707031 117.476570129395 117.454681396484 117.03157043457 116.459197998047 115.817092895508 115.289093017578 114.956817626953 114.065017700195 113.50902557373 114.058570861816 114.99584197998 115.913452148438 117.604881286621 119.416030883789 120.150039672852 120.521194458008 122.643165588379 126.129028320312 128.767852783203 129.611312866211 133.439544677734 137.442016601562 139.086547851562 144.794860839844 148.072128295898 144.421051025391 144.188430786133 140.000549316406 141.752578735352 140.054779052734 139.999984741211 139.999984741211 140.430450439453 140.455139160156 138.675964355469 136.83479309082 137.943939208984 138.78271484375 139.336120605469 143.949279785156 139.872512817383 139.748443603516 139.748443603516 140.68815612793 144.582321166992 147.794555664062 143.728149414062 142.591430664062 141.316040039062 140.005493164062 139.781768798828 144.525695800781 147.987594604492 139.603500366211 139.603500366211 142.557113647461 148.729888916016 146.498184204102 140.792098999023 139.782348632812 139.982055664062 140.955688476562 139.983184814453 139.790496826172 139.790496826172 139.941955566406 139.972854614258 139.812835693359 139.460388183594 139.460388183594 139.476776123047 139.766723632812 138.6513671875 135.869201660156 133.416168212891 131.583221435547 130 129.771179199219 129.120422363281 128.412689208984 127.983596801758 127.690231323242 127.111434936523 126.469360351562 125.597152709961 123.851654052734 124.472961425781 125.099830627441 126.362670898438 127.744697570801 128.423004150391 128.661224365234 128.712875366211 128.736633300781 128.877593994141 129.472808837891 129.669708251953 129.876983642578 130.566162109375 130.958862304688 131.209106445312 131.367919921875 131.32194519043 131.098785400391 131.008026123047 131.019378662109 130.979522705078 130.93505859375 131.1279296875 131.470764160156 131.466064453125 131.114929199219 130.732513427734 130.385406494141 130.326568603516 130.406799316406 130.973297119141 131.973083496094 133.003509521484 131.247344970703 130.042999267578 130 130.001098632812 130.005249023438 130.037322998047 130.061279296875 128.657196044922 127.223999023438 128.588134765625 125.581016540527
120.657348632812 120.698745727539 120.877113342285 120.764282226562 120.287033081055 120.063034057617 119.747055053711 120.013496398926 120.039283752441 120.405853271484 120.726593017578 120.979644775391 121.184715270996 121.349166870117 121.399063110352 121.340270996094 121.197875976562 120.928588867188 120.594879150391 120.135192871094 120.085662841797 120.085662841797 120.085662841797 120.085662841797 120.132537841797 120.134262084961 120.094047546387 120.184982299805 120.000534057617 119.62141418457 118.827026367188 118.017387390137 118.479644775391 118.47679901123 118.793876647949 118.849411010742 118.554183959961 118.554183959961 118.838531494141 119.14909362793 119.186447143555 118.822830200195 118.102386474609 117.685859680176 117.184295654297 116.981552124023 116.981552124023 116.981552124023 116.981552124023 116.951751708984 116.56022644043 116.272003173828 116.928634643555 116.589279174805 116.065460205078 116.086349487305 117.20832824707 117.456130981445 117.431167602539 117.189163208008 117.028869628906 116.915969848633 116.945045471191 117.486320495605 118 117.63109588623 117.171684265137 116.829330444336 116.849243164062 117.267112731934 117.826309204102 117.878067016602 117.453483581543 116.947250366211 116.122833251953 115.241180419922 114.524856567383 113.787506103516 113.532493591309 113.979881286621 114.849487304688 115.882415771484 117.646636962891 120.002456665039 120.443305969238 120.798934936523 124.035682678223 127.086433410645 130.211486816406 135.502868652344 139.978317260742 141.88215637207 144.436920166016 149.362274169922 150.401611328125 149.059814453125 146.78092956543 140.000549316406 141.092590332031 140.067443847656 139.999984741211 139.999984741211 140.526794433594 140.274841308594 139.022598266602 137.40217590332 138.838287353516 139.804290771484 140.007675170898 141.089447021484 144.47900390625 141.335723876953 139.748443603516 142.524536132812 146.036163330078 149.354919433594 147.863586425781 147.065643310547 147.156005859375 145.185211181641 144.042236328125 146.07536315918 148.583038330078 144.001373291016 143.997802734375 146.871612548828 149.677062988281 145.373626708984 140.002334594727 139.999984741211 141.922821044922 145.469421386719 147.72428894043 143.365692138672 140.009841918945 139.926788330078 139.805023193359 139.761840820312 139.460388183594 139.460388183594 139.480224609375 138.902099609375 137.643768310547 135.381637573242 132.941589355469 131.085968017578 130.484924316406 130.191360473633 130.016448974609 129.46142578125 129.019195556641 128.717956542969 127.868362426758 126.896133422852 125.883636474609 124.60701751709 124.731178283691 125.562698364258 126.609313964844 127.99991607666 128.69450378418 129.079803466797 129.153106689453 129.115325927734 128.978637695312 130.000076293945 130.072326660156 130.883392333984 130.827789306641 130.851669311523 130.96533203125 131.003356933594 131.031219482422 131.142150878906 131.321197509766 131.386657714844 131.192535400391 130.783325195312 130.757720947266 130.920959472656 130.894470214844 130.674789428711 130.390014648438 130.326568603516 130.326568603516 130.723876953125 131.528625488281 132.379699707031 132.459823608398 131.412155151367 130.032623291016 130 130.005706787109 129.997436523438 130.000289916992 129.181335449219 127.446044921875 124.955909729004 124.468231201172 126.257484436035
120.657348632812 120.915176391602 121.35026550293 121.580459594727 120.969741821289 120.14281463623 120.007461547852 120.113632202148 120.316162109375 120.673706054688 121.101821899414 121.471496582031 121.658721923828 121.751434326172 121.740303039551 121.648834228516 121.508697509766 121.284606933594 121.048683166504 120.721755981445 120.379684448242 120.271499633789 120.146881103516 120.108276367188 120.2109375 120.329727172852 120.516716003418 120.916641235352 120.856025695801 119.86669921875 119.539093017578 119.36799621582 119.561904907227 119.288017272949 119.555969238281 118.995895385742 118.554183959961 118.778625488281 119.270301818848 119.56307220459 119.564895629883 119.07746887207 118.50927734375 118.082160949707 117.669494628906 117.175354003906 116.981552124023 116.981552124023 117.011100769043 117.155166625977 116.899688720703 116.421722412109 116.589149475098 116.61181640625 116.471206665039 116.762962341309 117.369262695312 117.664497375488 117.710350036621 117.541374206543 117.287017822266 117.15648651123 117.019546508789 117.141067504883 117.423187255859 117.330467224121 116.947914123535 116.796051025391 116.796051025391 116.9345703125 117.525184631348 117.591583251953 117.019844055176 116.454452514648 115.875793457031 115.088279724121 114.324600219727 113.690628051758 113.532493591309 114.058792114258 115.482269287109 117.14363861084 118.714401245117 120.178970336914 121.261543273926 123.290916442871 125.816497802734 128.601745605469 130.829040527344 136.838897705078 139.682754516602 141.976959228516 147.299392700195 151.997619628906 152.113372802734 149.83642578125 143.915725708008 142.027694702148 143.601837158203 143.278869628906 142.431121826172 143.847152709961 146.68701171875 148.140411376953 142.541137695312 138.13117980957 139.177032470703 141.111663818359 145.161270141602 146.386947631836 149.997283935547 147.710845947266 145.686630249023 147.729034423828 150.603240966797 152.071090698242 152.023880004883 149.851440429688 149.969329833984 153.395950317383 152.86767578125 150.156326293945 150.095977783203 150.064483642578 149.999847412109 149.638000488281 149.581115722656 147.623443603516 141.089477539062 143.327484130859 146.488739013672 148.765502929688 148.246185302734 143.103973388672 142.467330932617 142.729553222656 141.225128173828 139.839813232422 139.589462280273 139.555587768555 138.99560546875 137.844833374023 136.48974609375 134.561859130859 132.642791748047 131.283126831055 130.889205932617 130.562576293945 130.140716552734 129.990249633789 130 129.279983520508 128.363143920898 127.427505493164 126.550666809082 125.330917358398 125.034950256348 125.528663635254 125.432014465332 127.168228149414 128.353363037109 129.2919921875 129.471069335938 129.627014160156 129.452926635742 129.774063110352 130.209747314453 130.462295532227 130.596389770508 130.695861816406 130.727600097656 130.726745605469 130.876083374023 131.378265380859 132.01432800293 132.372467041016 132.0517578125 130.999984741211 130.801971435547 130.716247558594 130.55712890625 130.36198425293 130.326568603516 130.326568603516 130.505828857422 131.287963867188 131.995941162109 132.380493164062 132.126800537109 131.192962646484 130.243194580078 130.032424926758 129.978103637695 129.978103637695 129.978103637695 129.072052001953 127.184059143066 124.903015136719 124.200309753418 125.115921020508
120.830368041992 121.154586791992 121.511016845703 121.955360412598 121.33122253418 120.405853271484 119.935035705566 120.458862304688 120.701400756836 121.0458984375 121.502769470215 121.942581176758 122.140686035156 122.182266235352 122.110473632812 121.975830078125 121.860153198242 121.778678894043 121.751647949219 121.830627441406 121.493057250977 120.721771240234 120.328857421875 120.176116943359 120.249450683594 120.4443359375 120.786361694336 121.440032958984 121.613922119141 120.834945678711 120.225662231445 120.315162658691 120.268081665039 120.068710327148 119.746002197266 119.38493347168 119.425186157227 119.612197875977 119.725692749023 119.862998962402 119.850997924805 119.638320922852 119.107513427734 118.714477539062 118.249725341797 117.695526123047 117.39217376709 117.255676269531 117.360244750977 117.593688964844 117.602409362793 117.409698486328 117.024238586426 116.82258605957 117.205825805664 118.192810058594 118.669586181641 119.033889770508 118.678192138672 118.095260620117 117.78759765625 117.846664428711 117.417877197266 117.00951385498 117.08748626709 117.068756103516 116.796051025391 116.796051025391 116.796051025391 116.796051025391 117.17512512207 117.347076416016 116.489517211914 115.875289916992 115.803237915039 115.43302154541 114.972717285156 114.568984985352 113.729766845703 114.375259399414 116.597625732422 118.015838623047 119.375274658203 122.27424621582 124.501907348633 126.61506652832 127.728294372559 129.8076171875 131.042938232422 135.58642578125 139.057571411133 139.401229858398 142.20133972168 149.384338378906 149.839447021484 144.826156616211 145.360977172852 147.669692993164 149.399078369141 148.639587402344 148.023574829102 149.493347167969 149.8525390625 149.766906738281 144.567825317383 139.208053588867 139.528274536133 143.284515380859 150.521392822266 150.826248168945 154.952041625977 149.85725402832 149.529693603516 150.573822021484 155.050811767578 156.855316162109 157.493621826172 154.343200683594 152.557891845703 160.218963623047 159.12060546875 154.594207763672 154.636520385742 154.781585693359 153.375305175781 152.682479858398 152.778625488281 151.026870727539 146.248962402344 147.101501464844 149.774826049805 149.787902832031 148.205902099609 144.871002197266 144.062652587891 143.831756591797 141.594268798828 139.924621582031 139.816711425781 139.650665283203 138.128143310547 136.431289672852 135.228942871094 133.915740966797 132.57014465332 131.804565429688 131.620407104492 130.662261962891 130.089935302734 129.999221801758 129.999221801758 129.570068359375 129.037887573242 128.580932617188 127.792541503906 127.021003723145 125.572456359863 126.025405883789 126.056091308594 126.362190246582 127.555694580078 129.007476806641 129.943481445312 130.006591796875 129.700653076172 130.098449707031 130.078872680664 130.113555908203 130.288238525391 130.586120605469 130.625350952148 130.589538574219 130.85205078125 131.756256103516 133.011383056641 133.93962097168 133.698760986328 132.487060546875 131.566314697266 130.935150146484 130.554122924805 130.326568603516 130.326568603516 130.455047607422 131.124359130859 132.014312744141 132.508590698242 132.514495849609 132.035888671875 131.130355834961 130.494552612305 130.000030517578 129.978103637695 129.978103637695 130.002014160156 129.029022216797 127.242042541504 125.432113647461 122.578720092773 123.093727111816
121.494148254395 121.416580200195 121.271621704102 121.076507568359 120.815246582031 119.672080993652 120.469055175781 120.86100769043 121.231384277344 121.454162597656 121.757469177246 122.240432739258 122.562026977539 122.652954101562 122.558403015137 122.394271850586 122.290046691895 122.300651550293 122.305625915527 122.069046020508 121.400680541992 120.718811035156 120.393356323242 120.253479003906 120.296783447266 120.450653076172 120.715438842773 121.220405578613 121.509994506836 121.245544433594 121.049362182617 121.035263061523 120.956657409668 120.691986083984 120.376098632812 120 119.911666870117 120.007690429688 120.065589904785 120.18962097168 120.03556060791 120.017532348633 119.688194274902 119.273513793945 118.826705932617 118.184677124023 117.822715759277 117.736862182617 117.864288330078 118.112396240234 118.248672485352 117.880973815918 117.213409423828 116.995140075684 117.490295410156 119.053276062012 120.569435119629 119.935165405273 119.590400695801 119.047073364258 119.009437561035 118.971603393555 118.515197753906 117.769538879395 117.547775268555 117.340621948242 116.871620178223 116.796051025391 116.796051025391 116.796051025391 117.349960327148 118.058555603027 117.460723876953 116.839813232422 116.801940917969 116.892532348633 117.083061218262 117.471405029297 116.227005004883 115.874237060547 117.801856994629 120.000793457031 120.902572631836 123.333724975586 126.86994934082 129.227798461914 130.386383056641 132.445220947266 134.441131591797 138.118682861328 140.169448852539 146.561218261719 150.000595092773 149.960876464844 149.712753295898 148.897903442383 148.436798095703 149.999969482422 149.73974609375 149.695190429688 149.978622436523 150.012023925781 150 150.059631347656 148.134490966797 143.512588500977 139.820281982422 142.380584716797 148.701873779297 149.879974365234 149.999969482422 149.999969482422 149.986145019531 150.437042236328 158.173858642578 160.219589233398 160.049407958984 160.120346069336 160.209136962891 159.956481933594 160.128402709961 160.560577392578 159.985794067383 159.999862670898 158.020812988281 157.41552734375 156.180847167969 151.8154296875 150.72917175293 151.08154296875 150.314697265625 150 147.966461181641 145.711517333984 145.152481079102 143.764602661133 142.034759521484 140.793579101562 140.114822387695 138.52001953125 136.819213867188 134.783996582031 134.059326171875 133.416870117188 132.743743896484 132.451721191406 132.651290893555 130.974670410156 129.984832763672 130.418121337891 130.196075439453 130.000015258789 129.92724609375 129.606628417969 128.986801147461 128.715240478516 128.323486328125 128.215454101562 128.075607299805 127.30345916748 126.61742401123 127.397018432617 128.874633789062 130.038650512695 130.36279296875 130.870483398438 130.171905517578 130.059600830078 130.280868530273 130.8134765625 130.736694335938 130.505218505859 130.730499267578 132.039215087891 134.154113769531 136.121704101562 135.832336425781 134.003005981445 132.397735595703 131.29345703125 130.754364013672 130.488128662109 130.468841552734 130.825073242188 131.968414306641 133.071990966797 133.230010986328 132.849700927734 132.200134277344 131.366516113281 130.738906860352 130.459228515625 130.115020751953 130.016815185547 130 129.097686767578 128.035888671875 126.844009399414 125.942611694336 124.891357421875
122.162376403809 121.804489135742 121.423446655273 120.965042114258 120.637741088867 120.476928710938 120.659111022949 121.610450744629 121.885475158691 121.74243927002 121.806686401367 122.349243164062 122.905258178711 123.089935302734 122.973190307617 122.776611328125 122.642028808594 122.664398193359 122.660720825195 122.130928039551 121.083862304688 120.714515686035 120.52766418457 120.395568847656 120.414413452148 120.509765625 120.532760620117 120.532760620117 120.573280334473 121.488662719727 121.846313476562 121.809814453125 121.687637329102 121.119979858398 120.872375488281 120.520858764648 120.302375793457 120.394241333008 120.325637817383 120.306365966797 120.137481689453 120.057281494141 120.008193969727 119.603912353516 119.209297180176 118.363891601562 118.069763183594 118.177032470703 118.363395690918 118.555648803711 118.481925964355 117.839317321777 116.996894836426 117.212966918945 117.562965393066 118.672523498535 119.56379699707 119.749435424805 119.925186157227 119.65185546875 119.999977111816 119.845245361328 119.252174377441 118.789596557617 118.488342285156 118.087394714355 117.522468566895 116.796051025391 116.796051025391 116.796051025391 117.73624420166 119.100852966309 118.791122436523 118.305892944336 118.191146850586 118.563331604004 118.886001586914 119.347793579102 119.294502258301 118.409049987793 118.949172973633 120.091781616211 122.368827819824 125.644844055176 128.98127746582 131.172668457031 135.834930419922 139.543670654297 139.530059814453 140.122344970703 144.715682983398 149.858306884766 152.149353027344 153.572509765625 155.831985473633 151.235717773438 149.999801635742 154.30615234375 154.103332519531 149.565795898438 149.565795898438 154.345764160156 154.695953369141 149.825942993164 149.137420654297 144.110687255859 140.572509765625 144.607757568359 149.989990234375 150.747695922852 155.738952636719 152.169570922852 150.000442504883 152.909362792969 156.311172485352 160.092254638672 160 161.069473266602 162.394775390625 165.226043701172 162.193206787109 162.118347167969 160.001480102539 159.914123535156 159.940628051758 159.909103393555 159.060516357422 157.168441772461 154.635650634766 153.314636230469 152.132171630859 150.712905883789 149.379089355469 147.462249755859 146.33186340332 144.573516845703 142.54736328125 141.537963867188 140.711853027344 139.725509643555 137.578643798828 134.823364257812 133.830184936523 133.064804077148 132.486938476562 132.185211181641 132.05973815918 130.373779296875 130.351409912109 131.004852294922 130.71711730957 130.624603271484 130.673324584961 130.166107177734 129.828247070312 129.418914794922 129.539154052734 129.602111816406 129.482467651367 128.113662719727 127.646240234375 127.457290649414 127.228523254395 130.313690185547 131.007919311523 129.389739990234 130.260375976562 130.230377197266 131.236557006836 131.543182373047 131.004013061523 130.39518737793 130.395202636719 131.664978027344 134.349105834961 137.679885864258 137.039306640625 134.546020507812 132.615783691406 131.479187011719 131.030059814453 130.879745483398 131.005966186523 131.597686767578 132.849899291992 134.018829345703 133.675933837891 133.014617919922 132.271728515625 131.462463378906 130.913452148438 130.540557861328 130.191986083984 129.997894287109 129.997894287109 129.887390136719 128.939743041992 128.491760253906 127.861099243164 125.590942382812
122.824478149414 122.249198913574 121.854629516602 121.477439880371 120.802024841309 120.834999084473 121.435745239258 122.716850280762 122.483345031738 121.72135925293 121.72135925293 122.371803283691 123.378303527832 123.496322631836 123.30500793457 123.078353881836 122.884773254395 122.900787353516 123.117012023926 123.021751403809 122.286689758301 121.486030578613 121.007171630859 120.737251281738 120.710250854492 120.82194519043 120.764030456543 120.532760620117 120.532760620117 121.130958557129 121.592079162598 121.468620300293 121.596542358398 121.627380371094 121.369438171387 121.13111114502 120.991806030273 120.72924041748 120.937797546387 120.739311218262 120.445381164551 120.137680053711 120.003288269043 120 119.131454467773 118.10945892334 118.353088378906 118.751411437988 118.945175170898 118.936416625977 118.577644348145 118.377342224121 118.003105163574 117.88134765625 117.836761474609 118.326538085938 118.908203125 119.462112426758 119.84489440918 119.999618530273 120.050216674805 120.319007873535 119.889739990234 119.749877929688 119.433074951172 118.970359802246 118.521682739258 118.016105651855 117.665794372559 117.117668151855 117.951713562012 119.21492767334 119.501708984375 119.34122467041 119.257301330566 119.382568359375 119.53205871582 119.732116699219 120 120.221618652344 120.582763671875 122.494560241699 125.728210449219 128.549194335938 130.340759277344 136.629043579102 139.826934814453 140.279373168945 139.971832275391 143.83984375 147.991790771484 150.559295654297 159.586502075195 159.200714111328 159.359619140625 151.1220703125 155.896270751953 160.183364868164 157.488967895508 151.399322509766 151.909362792969 154.649673461914 159.769027709961 151.609527587891 149.812759399414 145.429077148438 142.221130371094 145.207290649414 150.033630371094 149.998840332031 151.893188476562 151.324127197266 156.555786132812 159.357849121094 159.722473144531 162.784317016602 165.920440673828 167.058685302734 169.482391357422 170.013778686523 168.571472167969 163.221420288086 160.548248291016 160.021957397461 160.05500793457 160.013946533203 159.197708129883 157.0859375 153.803482055664 153.131484985352 153.740432739258 151.670013427734 150.136276245117 149.284240722656 147.75634765625 145.148849487305 142.736251831055 142.469009399414 143.713973999023 142.985977172852 139.885192871094 136.427215576172 134.426712036133 133.029998779297 132.354583740234 131.439910888672 130.567367553711 130.5546875 131.081573486328 131.422225952148 131.985260009766 131.970520019531 131.503814697266 130.908355712891 130.278366088867 129.982299804688 130.31037902832 131.020233154297 131.793380737305 130.605682373047 127.984992980957 128.945571899414 129.000411987305 129.279632568359 129.730422973633 129.76496887207 129.84651184082 131.271118164062 132.884735107422 132.721374511719 131.173538208008 130.315063476562 130.315063476562 130.474349975586 133.002365112305 136.097671508789 135.999786376953 133.872634887695 132.136108398438 131.556396484375 131.468505859375 131.501220703125 131.694610595703 132.175888061523 132.890335083008 133.430725097656 133.291366577148 132.696838378906 131.931640625 131.268508911133 130.985092163086 130.743713378906 130.363372802734 129.997894287109 129.997894287109 130.270523071289 130.110992431641 130.154479980469 128.551376342773 124.814224243164
123.132797241211 122.462989807129 122.080062866211 121.70735168457 123.647651672363 122.889930725098 121.866790771484 122.124572753906 121.72135925293 121.72135925293 121.72135925293 122.388580322266 123.597854614258 123.489166259766 123.306449890137 123.092613220215 122.839996337891 122.840522766113 123.346542358398 123.885101318359 123.347831726074 122.303733825684 121.553199768066 121.136871337891 121.108451843262 121.346221923828 121.488227844238 121.246353149414 121.013389587402 121.34489440918 121.670570373535 121.784004211426 122.286079406738 122.329406738281 121.85424041748 121.234375 121.063575744629 121.166084289551 121.502334594727 121.345352172852 120.864059448242 120.288948059082 120.031135559082 120.018524169922 119.795722961426 119.000534057617 119.115119934082 119.476768493652 119.382293701172 119.05305480957 119.172386169434 118.869697570801 118.886169433594 118.570495605469 118.319129943848 118.636207580566 119.287071228027 119.650489807129 119.999984741211 120.534133911133 121.347854614258 121.845794677734 120.788879394531 119.882469177246 120.030288696289 119.918563842773 119.583106994629 119.34928894043 119.03125 118.354316711426 118.138771057129 119.069999694824 119.775604248047 119.742637634277 119.743667602539 119.779083251953 120 120.5302734375 120.997673034668 121.440452575684 122.096946716309 125.470054626465 128.635055541992 130.035568237305 131.630355834961 138.421371459961 139.996032714844 142.849960327148 145.544631958008 148.853591918945 150.790420532227 155.528244018555 157.168594360352 160.007415771484 159.878875732422 155.674789428711 157.18132019043 159.965454101562 159.84944152832 160.070648193359 157.601577758789 154.724517822266 159.487258911133 152.115585327148 149.863647460938 147.899017333984 143.304656982422 144.655456542969 150.208740234375 150.917663574219 151.595474243164 155.277603149414 159.94319152832 160.141647338867 165.373458862305 166.269012451172 169.253433227539 171.652526855469 170.689453125 170.078903198242 170.102630615234 163.913619995117 159.999984741211 160.066360473633 160.416915893555 159.703643798828 155.597778320312 152.693756103516 150.891815185547 151.140823364258 151.514083862305 150.982604980469 149.899276733398 149.861663818359 148.672988891602 144.872024536133 141.362182617188 141.110580444336 141.675277709961 141.485900878906 139.621856689453 137.220840454102 133.888534545898 132.953430175781 133.631881713867 132.019973754883 130.970077514648 133.820663452148 134.941543579102 135.750823974609 135.649780273438 135.235107421875 133.477005004883 131.655883789062 131.281692504883 131.30908203125 132.807540893555 133.989974975586 133.368011474609 131.11149597168 128.670104980469 129.999847412109 129.907318115234 130.233474731445 130.273635864258 130.077102661133 130.05500793457 132.199111938477 134.847732543945 133.628784179688 130.925720214844 130.315063476562 130.315063476562 130.752822875977 132.577270507812 134.460464477539 134.579055786133 133.180862426758 131.954040527344 131.993682861328 132.168762207031 132.237075805664 132.274810791016 132.312271118164 132.312744140625 132.418548583984 132.492324829102 132.127243041992 131.332778930664 131.1171875 131.224182128906 131.120315551758 130.837219238281 130.390228271484 130.469314575195 130.928726196289 130.472320556641 130.491256713867 125.01806640625 126.708503723145
122.831665039062 122.249954223633 121.568710327148 122.257713317871 122.810760498047 122.435165405273 121.72135925293 121.72135925293 121.72135925293 121.72135925293 121.72135925293 121.72135925293 122.334548950195 122.861717224121 122.954879760742 122.763664245605 122.761032104492 122.761032104492 123.109313964844 123.855812072754 123.664131164551 122.76717376709 121.947402954102 121.437385559082 121.440132141113 121.885879516602 122.401718139648 122.400756835938 121.882751464844 121.946159362793 122.403129577637 123.17798614502 123.663070678711 123.370712280273 122.562850952148 121.404190063477 121.066932678223 121.395622253418 121.97452545166 121.890686035156 121.227836608887 120.610221862793 120.269187927246 120.681518554688 120.282104492188 120.831596374512 119.828735351562 119.889511108398 119.423675537109 119.446495056152 119.748664855957 119.153411865234 119.053871154785 119.054550170898 118.909538269043 119.183128356934 119.585418701172 119.904930114746 121.148956298828 121.903121948242 122.484764099121 122.773620605469 120.868392944336 120.822212219238 120.605033874512 120.593849182129 120.084976196289 120.178993225098 120.087554931641 119.398391723633 118.30029296875 118.907188415527 120.053245544434 120.003608703613 119.956916809082 120.664306640625 121.012016296387 121.987396240234 122.982574462891 123.928848266602 123.72957611084 127.372116088867 130.069931030273 130.064834594727 132.648712158203 137.881378173828 139.804168701172 141.365081787109 145.986663818359 149.851425170898 150.06086730957 159.157119750977 159.421752929688 162.377700805664 160.02702331543 158.299957275391 157.136703491211 159.995071411133 166.588317871094 163.993408203125 158.962295532227 159.877395629883 160.152786254883 153.646133422852 150.262237548828 147.509628295898 145.302185058594 144.185806274414 149.999908447266 154.755645751953 159.361450195312 159.79753112793 159.99919128418 162.783264160156 169.989303588867 170.219375610352 170.192459106445 176.149658203125 179.141998291016 169.999984741211 170.010406494141 168.728637695312 163.119674682617 160.006393432617 160.620162963867 157.914978027344 153.040710449219 150.836029052734 150.000030517578 150.000030517578 149.999938964844 150.5927734375 154.559341430664 150.095458984375 149.32470703125 144.911926269531 140.558547973633 139.799072265625 138.788543701172 137.87109375 137.044372558594 135.171417236328 135.115463256836 134.760787963867 134.489379882812 132.999618530273 131.877655029297 134.595367431641 138.327697753906 140.038619995117 140.361206054688 138.757843017578 134.957000732422 133.210601806641 133.368011474609 133.620071411133 134.622772216797 135.128372192383 132.658843994141 129.781799316406 130.331481933594 130.390197753906 130.435180664062 130.408843994141 130.485748291016 130.315292358398 128.556854248047 131.669082641602 133.254577636719 132.151794433594 130.743850708008 130.315063476562 130.315063476562 131.278350830078 132.625991821289 133.676010131836 133.879592895508 133.403579711914 133.021621704102 133.126770019531 133.288284301758 133.185363769531 132.903427124023 132.464340209961 132.006607055664 131.772598266602 131.814819335938 131.701171875 131.539932250977 132.053268432617 131.76774597168 131.651077270508 131.652587890625 131.702438354492 131.923736572266 131.64958190918 130.767944335938 125.19995880127 126.214653015137 128.115859985352
122.682106018066 122.492500305176 122.088356018066 122.739364624023 122.813674926758 122.463417053223 122.032623291016 121.72135925293 121.72135925293 121.72135925293 121.72135925293 121.72135925293 121.72135925293 122.438262939453 122.754615783691 122.761032104492 122.761032104492 122.761032104492 122.949035644531 123.662963867188 123.607498168945 122.877586364746 122.057914733887 121.467681884766 121.446296691895 121.994606018066 122.704063415527 122.773551940918 122.018142700195 122.243431091309 122.773635864258 123.529144287109 124.211395263672 124.10181427002 123.304382324219 122.204299926758 121.700820922852 121.68775177002 122.062576293945 121.751594543457 121.212707519531 120.677001953125 120.425109863281 120.490852355957 121.418426513672 122.659309387207 119.708015441895 119.708015441895 120.275352478027 120.122215270996 120.02082824707 119.999992370605 119.531791687012 119.483367919922 119.387977600098 119.503158569336 120.002059936523 122.517547607422 124.033241271973 124.466163635254 123.613891601562 122.126388549805 121.367485046387 121.492813110352 121.363716125488 120.84497833252 120.252433776855 120.056297302246 120.056297302246 120.055191040039 118.88362121582 119.531997680664 119.971900939941 120 120.331245422363 121.469375610352 122.27124786377 123.081787109375 124.182022094727 125.66650390625 125.718605041504 125.519966125488 127.676094055176 129.183166503906 133.114410400391 136.40495300293 138.290954589844 140.006240844727 144.515380859375 149.835784912109 154.1650390625 159.21076965332 156.887161254883 158.73747253418 161.941879272461 163.839431762695 159.865173339844 168.117141723633 170.321975708008 162.221954345703 158.994110107422 160.277435302734 158.884475708008 154.431976318359 150.11669921875 149.966812133789 148.059707641602 145.065643310547 148.383651733398 152.813385009766 159.983535766602 159.276107788086 159.68098449707 162.437240600586 169.174102783203 170.017059326172 170 172.909759521484 175.097106933594 171.149887084961 170.022384643555 167.18327331543 160 160 160.26399230957 156.983444213867 152.653503417969 150.000030517578 150.000030517578 150.000030517578 154.993347167969 149.999923706055 149.849578857422 148.050720214844 145.931579589844 142.720397949219 140.344665527344 139.198715209961 139.181549072266 137.8623046875 137.281921386719 136.357162475586 135.90266418457 135.602172851562 134.751724243164 133.567687988281 132.596084594727 137.23957824707 140.000061035156 140.022796630859 140.041091918945 139.856811523438 135.58659362793 136.475677490234 137.847152709961 137.277282714844 135.528656005859 132.912445068359 131.201034545898 130.942687988281 130.847244262695 130.872146606445 130.952545166016 131.142517089844 132.182220458984 132.171096801758 130.941986083984 129.350021362305 130.938186645508 130.529968261719 130.41535949707 130.141555786133 130.363906860352 132.100875854492 133.179290771484 133.551391601562 133.723297119141 133.803451538086 133.931198120117 134.246963500977 134.409149169922 134.078414916992 133.474563598633 132.726806640625 132.079986572266 131.654876708984 131.569046020508 131.569046020508 131.590789794922 131.874160766602 131.871368408203 131.935974121094 132.199340820312 132.58576965332 132.733764648438 131.905502319336 130.724945068359 124.942390441895 126.769897460938 128.642990112305
122.674339294434 122.392990112305 123.042976379395 123.901641845703 123.722770690918 123.461166381836 123.575057983398 123.839447021484 123.532623291016 122.623474121094 121.72135925293 121.72135925293 122.198806762695 122.957504272461 123.044578552246 122.835052490234 122.761032104492 122.761032104492 123.140548706055 123.782913208008 123.676498413086 122.924263000488 122.019508361816 121.419975280762 121.419975280762 121.707557678223 122.38451385498 122.601226806641 122.427436828613 122.734321594238 122.992774963379 122.992774963379 123.751289367676 124.125328063965 123.711288452148 122.841491699219 122.345764160156 122.196914672852 122.160217285156 121.425773620605 121.058982849121 120.859436035156 120.710807800293 120.73656463623 123.640480041504 125.822067260742 121.039352416992 120.238700866699 120.854377746582 120.404037475586 120.072052001953 120.009429931641 119.961135864258 119.76782989502 119.786811828613 119.828651428223 121.731216430664 124.670341491699 126.294967651367 125.396591186523 123.825866699219 122.03303527832 122.375633239746 122.662704467773 122.159782409668 121.230323791504 120.484169006348 120.172096252441 120.253768920898 120.109664916992 119.751251220703 120.019866943359 120.028564453125 120.132949829102 121.006713867188 122.008712768555 123.00373840332 123.943351745605 124.851028442383 125.752349853516 125.91234588623 127.010986328125 128.731689453125 130.068817138672 131.55744934082 134.928848266602 137.963943481445 140.270004272461 142.266418457031 147.295791625977 149.275680541992 149.456237792969 150.836135864258 156.641418457031 163.273101806641 159.81689453125 160.132766723633 168.464431762695 160.942169189453 162.362167358398 164.968963623047 159.784576416016 159.141815185547 154.916534423828 152.201934814453 152.185562133789 149.998382568359 146.785995483398 147.903289794922 150.227355957031 154.762893676758 155.046875 158.382934570312 160.575775146484 168.936538696289 170.001602172852 170.000259399414 170.016708374023 169.890426635742 168.387542724609 166.389358520508 160.533218383789 161.076293945312 160.310531616211 160.024063110352 158.811767578125 156.07942199707 153.30403137207 152.228073120117 150.145950317383 153.499710083008 150.39274597168 148.662475585938 147.353729248047 144.344223022461 141.968948364258 140.639755249023 139.995330810547 139.265808105469 138.697967529297 138.270736694336 137.22151184082 136.536148071289 135.949600219727 135.03547668457 133.484664916992 133.249633789062 138.918045043945 140.802658081055 142.452377319336 142.342788696289 139.877746582031 138.989028930664 140.102630615234 140.071838378906 138.189727783203 134.078475952148 132.907150268555 132.708450317383 131.894882202148 131.590454101562 131.895690917969 132.61442565918 134.157806396484 136.389801025391 135.214279174805 133.108993530273 131.033386230469 129.935333251953 129.886032104492 129.540786743164 133.369537353516 132.393753051758 132.749847412109 133.071701049805 133.193771362305 133.521270751953 134.008117675781 134.469161987305 134.967330932617 135.185516357422 134.778961181641 133.977355957031 133.053131103516 132.297836303711 131.74674987793 131.580047607422 131.569412231445 131.569412231445 131.611343383789 131.71125793457 131.914581298828 132.275604248047 132.773788452148 132.939498901367 131.929946899414 130.914245605469 128.134658813477 126.259422302246 128.350402832031
123.103187561035 122.623054504395 123.012710571289 123.7958984375 124.040962219238 124.12459564209 124.440841674805 124.924415588379 124.391983032227 123.554817199707 123.209648132324 124.208213806152 124.644996643066 123.942237854004 123.477485656738 123.071014404297 122.761032104492 122.761032104492 123.24925994873 123.983131408691 123.751365661621 122.972389221191 122.024314880371 121.419975280762 121.419975280762 121.54434967041 122.272888183594 122.809547424316 123.07266998291 123.31201171875 123.213516235352 122.992774963379 122.992774963379 123.758491516113 123.519607543945 122.976226806641 122.451812744141 122.696830749512 122.606658935547 121.481559753418 121.03059387207 121.536933898926 121.574203491211 122.442726135254 124.813468933105 126.494667053223 123.899765014648 122.154289245605 121.831390380859 121.04418182373 120.455574035645 120.326110839844 120.039543151855 119.891403198242 119.891403198242 120.834602355957 123.675331115723 125.067085266113 125.534233093262 124.620208740234 123.199783325195 122.926147460938 123.648445129395 123.926475524902 122.896934509277 121.59489440918 120.690757751465 120.297752380371 120.298301696777 120.358070373535 120.02237701416 119.999809265137 119.999809265137 120.396286010742 121.171920776367 122.204536437988 123.421020507812 124.788848876953 125.45044708252 125.976615905762 126.304626464844 127.195739746094 128.3818359375 129.736267089844 131.009994506836 133.115539550781 135.665603637695 138.879898071289 139.630020141602 141.704772949219 147.555114746094 154.171371459961 149.83512878418 153.427337646484 155.683578491211 155.410858154297 160.235290527344 159.38818359375 164.331558227539 170.000274658203 161.648498535156 159.656997680664 159.893402099609 158.168197631836 158.802200317383 155.869979858398 151.014389038086 149.592269897461 148.858642578125 150.477874755859 151.438247680664 157.306518554688 159.948593139648 163.691665649414 170.090423583984 169.932876586914 169.945831298828 169.66096496582 166.190689086914 161.855682373047 160.632995605469 159.690994262695 160.837356567383 159.697525024414 158.652923583984 160.221755981445 157.052673339844 155.453704833984 153.499237060547 150.621948242188 150.408096313477 149.27116394043 147.437744140625 145.495391845703 143.606918334961 142.087524414062 141.097198486328 139.903305053711 139.620132446289 139.417205810547 138.812210083008 137.835494995117 136.854446411133 136.106521606445 137.756057739258 134.708084106445 136.807647705078 140.326583862305 143.855239868164 144.68098449707 143.633651733398 140.913024902344 139.984405517578 140.514923095703 140.251281738281 138.039016723633 134.462936401367 134.234085083008 134.002212524414 132.907196044922 132.465591430664 133.036071777344 134.176208496094 136.008361816406 137.588439941406 136.826461791992 134.797622680664 132.944778442383 132.953338623047 133.674331665039 136.894836425781 139.998794555664 135.432388305664 130.596710205078 131.575271606445 132.476806640625 133.235092163086 134.003601074219 134.619812011719 135.121887207031 135.284149169922 134.976043701172 134.307022094727 133.445434570312 132.722793579102 132.141464233398 131.931823730469 131.795974731445 131.684677124023 131.600723266602 131.580581665039 131.675048828125 131.891967773438 132.159454345703 132.140853881836 131.429595947266 130.665878295898 130.722320556641 124.783485412598 124.929420471191
